0.000000 -16.000000 40.000000
-1.163829 -16.290957 41.600265
-2.327657 -16.581914 43.200529
-3.491486 -16.872872 44.800794
-4.655315 -17.163829 46.401058
-5.819144 -17.454786 48.001323
-6.982972 -17.745743 49.601587
-8.146801 -18.036700 51.201852
-9.310630 -18.327657 52.802116
-10.474459 -18.618615 54.402381
-11.638287 -18.909572 56.002645
-12.802116 -19.200529 57.602910
-13.965945 -19.491486 59.203174
-15.129774 -19.782443 60.803439
-16.293602 -20.073401 62.403703
-17.457431 -20.364358 64.003968
-18.621260 -20.655315 65.604232
-19.785089 -20.946272 67.204497
-20.948917 -21.237229 68.804762
-22.112746 -21.528187 70.405026
-23.276575 -21.819144 72.005291
-24.440404 -22.110101 73.605555
-25.604232 -22.401058 75.205820
-26.768061 -22.692015 76.806084
-27.931890 -22.982972 78.406349
-29.095719 -23.273930 80.006613
-30.259547 -23.564887 81.606878
-31.423376 -23.855844 83.207142
-32.587205 -24.146801 84.807407
-33.751034 -24.437758 86.407671
-34.914862 -24.728716 88.007936
-36.078691 -25.019673 89.608200
-37.242520 -25.310630 91.208465
-38.406349 -25.601587 92.808729
-39.570177 -25.892544 94.408994
-40.734006 -26.183502 96.009258
-41.897835 -26.474459 97.609523
-43.061664 -26.765416 99.209788
-44.225492 -27.056373 100.810052
-45.389321 -27.347330 102.410317
-46.553150 -27.638287 104.010581
-47.716979 -27.929245 105.610846
-48.880807 -28.220202 107.211110
-50.044636 -28.511159 108.811375
-51.208465 -28.802116 110.411639
-52.372294 -29.093073 112.011904
-53.536122 -29.384031 113.612168
-54.699951 -29.674988 115.212433
-55.863780 -29.965945 116.812697
-57.027609 -30.256902 118.412962
-58.191437 -30.547859 120.013226
-59.355266 -30.838817 121.613491
-60.519095 -31.129774 123.213755
-61.682924 -31.420731 124.814020
-64.000000 -32.000000 128.000000
-64.000000 -33.990074 128.199007
-64.000000 -35.980149 128.398015
-64.000000 -37.970223 128.597022
-64.000000 -39.960298 128.796030
-64.000000 -41.950372 128.995037
-64.000000 -43.940446 129.194045
-64.000000 -45.930521 129.393052
-64.000000 -47.920595 129.592060
-64.000000 -49.910669 129.791067
-64.000000 -51.900744 129.990074
-64.000000 -53.890818 130.189082
-64.000000 -55.880893 130.388089
-64.000000 -57.870967 130.587097
-64.000000 -59.861041 130.786104
-64.000000 -61.851116 130.985112
-64.000000 -63.841190 131.184119
-64.000000 -65.831264 131.383126
-64.000000 -67.821339 131.582134
-64.000000 -69.811413 131.781141
-64.000000 -71.801488 131.980149
-64.000000 -73.791562 132.179156
-64.000000 -75.781636 132.378164
-64.000000 -77.771711 132.577171
-64.000000 -79.761785 132.776179
-64.000000 -81.751860 132.975186
-64.000000 -83.741934 133.174193
-64.000000 -85.732008 133.373201
-64.000000 -87.722083 133.572208
-64.000000 -89.712157 133.771216
-64.000000 -91.702231 133.970223
-64.000000 -93.692306 134.169231
-64.000000 -95.682380 134.368238
-64.000000 -97.672455 134.567245
-64.000000 -99.662529 134.766253
-64.000000 -101.652603 134.965260
-64.000000 -103.642678 135.164268
-64.000000 -105.632752 135.363275
-64.000000 -107.622826 135.562283
-64.000000 -109.612901 135.761290
-64.000000 -111.602975 135.960298
-64.000000 -113.593050 136.159305
-64.000000 -115.583124 136.358312
-64.000000 -117.573198 136.557320
-64.000000 -119.563273 136.756327
-64.000000 -121.553347 136.955335
-64.000000 -123.543421 137.154342
-64.000000 -125.533496 137.353350
-64.000000 -127.523570 137.552357
-64.000000 -129.513645 137.751364
-64.000000 -131.503719 137.950372
-64.000000 -133.493793 138.149379
-64.000000 -135.483868 138.348387
-64.000000 -137.473942 138.547394
-64.000000 -139.464017 138.746402
-64.000000 -141.454091 138.945409
-64.000000 -143.444165 139.144417
-64.000000 -145.434240 139.343424
-64.000000 -147.424314 139.542431
-64.000000 -149.414388 139.741439
-64.000000 -151.404463 139.940446
-64.000000 -153.394537 140.139454
-64.000000 -155.384612 140.338461
-64.000000 -157.374686 140.537469
-64.000000 -159.364760 140.736476
-64.000000 -161.354835 140.935483
-64.000000 -163.344909 141.134491
-64.000000 -165.334983 141.333498
-64.000000 -167.325058 141.532506
-64.000000 -169.315132 141.731513
-64.000000 -171.305207 141.930521
-64.000000 -173.295281 142.129528
-64.000000 -175.285355 142.328536
-64.000000 -177.275430 142.527543
-64.000000 -179.265504 142.726550
-64.000000 -181.255579 142.925558
-64.000000 -183.245653 143.124565
-64.000000 -185.235727 143.323573
-64.000000 -187.225802 143.522580
-64.000000 -189.215876 143.721588
-64.000000 -192.000000 144.000000
-65.345346 -193.479880 144.000000
-66.690691 -194.959760 144.000000
-68.036037 -196.439640 144.000000
-69.381382 -197.919521 144.000000
-70.726728 -199.399401 144.000000
-72.072074 -200.879281 144.000000
-73.417419 -202.359161 144.000000
-74.762765 -203.839041 144.000000
-76.108110 -205.318921 144.000000
-77.453456 -206.798801 144.000000
-78.798801 -208.278682 144.000000
-80.144147 -209.758562 144.000000
-81.489493 -211.238442 144.000000
-82.834838 -212.718322 144.000000
-84.180184 -214.198202 144.000000
-85.525529 -215.678082 144.000000
-86.870875 -217.157962 144.000000
-88.216221 -218.637843 144.000000
-89.561566 -220.117723 144.000000
-90.906912 -221.597603 144.000000
-92.252257 -223.077483 144.000000
-93.597603 -224.557363 144.000000
-94.942949 -226.037243 144.000000
-96.288294 -227.517124 144.000000
-97.633640 -228.997004 144.000000
-98.978985 -230.476884 144.000000
-100.324331 -231.956764 144.000000
-101.669676 -233.436644 144.000000
-103.015022 -234.916524 144.000000
-104.360368 -236.396404 144.000000
-105.705713 -237.876285 144.000000
-107.051059 -239.356165 144.000000
-108.396404 -240.836045 144.000000
-109.741750 -242.315925 144.000000
-111.087096 -243.795805 144.000000
-112.432441 -245.275685 144.000000
-113.777787 -246.755565 144.000000
-115.123132 -248.235446 144.000000
-116.468478 -249.715326 144.000000
-117.813824 -251.195206 144.000000
-119.159169 -252.675086 144.000000
-120.504515 -254.154966 144.000000
-121.849860 -255.634846 144.000000
-123.195206 -257.114726 144.000000
-124.540551 -258.594607 144.000000
-125.885897 -260.074487 144.000000
-127.231243 -261.554367 144.000000
-128.576588 -263.034247 144.000000
-129.921934 -264.514127 144.000000
-131.267279 -265.994007 144.000000
-132.612625 -267.473887 144.000000
-133.957971 -268.953768 144.000000
-135.303316 -270.433648 144.000000
-136.648662 -271.913528 144.000000
-137.994007 -273.393408 144.000000
-139.339353 -274.873288 144.000000
-140.684699 -276.353168 144.000000
-142.030044 -277.833049 144.000000
-143.375390 -279.312929 144.000000
-144.720735 -280.792809 144.000000
-146.066081 -282.272689 144.000000
-147.411426 -283.752569 144.000000
-148.756772 -285.232449 144.000000
-150.102118 -286.712329 144.000000
-151.447463 -288.192210 144.000000
-152.792809 -289.672090 144.000000
-154.138154 -291.151970 144.000000
-155.483500 -292.631850 144.000000
-156.828846 -294.111730 144.000000
-158.174191 -295.591610 144.000000
-159.519537 -297.071490 144.000000
-160.864882 -298.551371 144.000000
-162.210228 -300.031251 144.000000
-163.555574 -301.511131 144.000000
-164.900919 -302.991011 144.000000
-166.246265 -304.470891 144.000000
-167.591610 -305.950771 144.000000
-168.936956 -307.430651 144.000000
-170.282301 -308.910532 144.000000
-171.627647 -310.390412 144.000000
-172.972993 -311.870292 144.000000
-174.318338 -313.350172 144.000000
-175.663684 -314.830052 144.000000
-177.009029 -316.309932 144.000000
-178.354375 -317.789812 144.000000
-179.699721 -319.269693 144.000000
-181.045066 -320.749573 144.000000
-182.390412 -322.229453 144.000000
-183.735757 -323.709333 144.000000
-185.081103 -325.189213 144.000000
-186.426449 -326.669093 144.000000
-187.771794 -328.148974 144.000000
-189.117140 -329.628854 144.000000
-190.462485 -331.108734 144.000000
-191.807831 -332.588614 144.000000
-193.153176 -334.068494 144.000000
-194.498522 -335.548374 144.000000
-195.843868 -337.028254 144.000000
-197.189213 -338.508135 144.000000
-198.534559 -339.988015 144.000000
-199.879904 -341.467895 144.000000
-201.225250 -342.947775 144.000000
-202.570596 -344.427655 144.000000
-203.915941 -345.907535 144.000000
-205.261287 -347.387415 144.000000
-206.606632 -348.867296 144.000000
-207.951978 -350.347176 144.000000
-209.297324 -351.827056 144.000000
-210.642669 -353.306936 144.000000
-211.988015 -354.786816 144.000000
-213.333360 -356.266696 144.000000
-214.678706 -357.746576 144.000000
-216.024051 -359.226457 144.000000
-217.369397 -360.706337 144.000000
-218.714743 -362.186217 144.000000
-220.060088 -363.666097 144.000000
-221.405434 -365.145977 144.000000
-224.000000 -368.000000 144.000000
-225.992355 -367.843737 144.078132
-227.984709 -367.687474 144.156263
-229.977064 -367.531211 144.234395
-231.969419 -367.374948 144.312526
-233.961774 -367.218684 144.390658
-235.954128 -367.062421 144.468789
-237.946483 -366.906158 144.546921
-239.938838 -366.749895 144.625052
-241.931192 -366.593632 144.703184
-243.923547 -366.437369 144.781316
-245.915902 -366.281106 144.859447
-247.908257 -366.124843 144.937579
-249.900611 -365.968580 145.015710
-251.892966 -365.812316 145.093842
-253.885321 -365.656053 145.171973
-255.877675 -365.499790 145.250105
-257.870030 -365.343527 145.328236
-259.862385 -365.187264 145.406368
-261.854740 -365.031001 145.484500
-263.847094 -364.874738 145.562631
-265.839449 -364.718475 145.640763
-267.831804 -364.562211 145.718894
-269.824158 -364.405948 145.797026
-271.816513 -364.249685 145.875157
-273.808868 -364.093422 145.953289
-275.801223 -363.937159 146.031420
-277.793577 -363.780896 146.109552
-279.785932 -363.624633 146.187684
-281.778287 -363.468370 146.265815
-283.770641 -363.312107 146.343947
-285.762996 -363.155843 146.422078
-287.755351 -362.999580 146.500210
-289.747705 -362.843317 146.578341
-291.740060 -362.687054 146.656473
-293.732415 -362.530791 146.734605
-295.724770 -362.374528 146.812736
-297.717124 -362.218265 146.890868
-299.709479 -362.062002 146.968999
-301.701834 -361.905739 147.047131
-303.694188 -361.749475 147.125262
-305.686543 -361.593212 147.203394
-307.678898 -361.436949 147.281525
-309.671253 -361.280686 147.359657
-311.663607 -361.124423 147.437789
-313.655962 -360.968160 147.515920
-315.648317 -360.811897 147.594052
-317.640671 -360.655634 147.672183
-319.633026 -360.499370 147.750315
-321.625381 -360.343107 147.828446
-323.617736 -360.186844 147.906578
-325.610090 -360.030581 147.984709
-327.602445 -359.874318 148.062841
-329.594800 -359.718055 148.140973
-331.587154 -359.561792 148.219104
-333.579509 -359.405529 148.297236
-335.571864 -359.249266 148.375367
-337.564219 -359.093002 148.453499
-339.556573 -358.936739 148.531630
-341.548928 -358.780476 148.609762
-343.541283 -358.624213 148.687893
-345.533637 -358.467950 148.766025
-347.525992 -358.311687 148.844157
-349.518347 -358.155424 148.922288
-351.510702 -357.999161 149.000420
-353.503056 -357.842898 149.078551
-355.495411 -357.686634 149.156683
-357.487766 -357.530371 149.234814
-359.480120 -357.374108 149.312946
-361.472475 -357.217845 149.391077
-363.464830 -357.061582 149.469209
-365.457185 -356.905319 149.547341
-367.449539 -356.749056 149.625472
-369.441894 -356.592793 149.703604
-371.434249 -356.436530 149.781735
-373.426603 -356.280266 149.859867
-375.418958 -356.124003 149.937998
-377.411313 -355.967740 150.016130
-379.403668 -355.811477 150.094261
-381.396022 -355.655214 150.172393
-383.388377 -355.498951 150.250525
-385.380732 -355.342688 150.328656
-387.373086 -355.186425 150.406788
-389.365441 -355.030161 150.484919
-391.357796 -354.873898 150.563051
-393.350151 -354.717635 150.641182
-395.342505 -354.561372 150.719314
-397.334860 -354.405109 150.797445
-399.327215 -354.248846 150.875577
-401.319569 -354.092583 150.953709
-403.311924 -353.936320 151.031840
-405.304279 -353.780057 151.109972
-407.296634 -353.623793 151.188103
-409.288988 -353.467530 151.266235
-411.281343 -353.311267 151.344366
-413.273698 -353.155004 151.422498
-415.266052 -352.998741 151.500630
-417.258407 -352.842478 151.578761
-419.250762 -352.686215 151.656893
-421.243116 -352.529952 151.735024
-423.235471 -352.373689 151.813156
-425.227826 -352.217425 151.891287
-428.000000 -352.000000 152.000000
-427.841996 -351.578655 153.948718
-427.683992 -351.157311 155.897437
-427.525987 -350.735966 157.846155
-427.367983 -350.314622 159.794874
-427.209979 -349.893277 161.743592
-427.051975 -349.471933 163.692310
-426.893971 -349.050588 165.641029
-426.735966 -348.629244 167.589747
-426.577962 -348.207899 169.538466
-426.419958 -347.786555 171.487184
-426.261954 -347.365210 173.435903
-426.103950 -346.943866 175.384621
-425.945945 -346.522521 177.333339
-425.787941 -346.101177 179.282058
-425.629937 -345.679832 181.230776
-425.471933 -345.258488 183.179495
-425.313929 -344.837143 185.128213
-425.155924 -344.415799 187.076931
-424.997920 -343.994454 189.025650
-424.839916 -343.573110 190.974368
-424.681912 -343.151765 192.923087
-424.523908 -342.730421 194.871805
-424.365903 -342.309076 196.820524
-424.207899 -341.887731 198.769242
-424.049895 -341.466387 200.717960
-423.891891 -341.045042 202.666679
-423.733887 -340.623698 204.615397
-423.575883 -340.202353 206.564116
-423.417878 -339.781009 208.512834
-423.259874 -339.359664 210.461552
-423.101870 -338.938320 212.410271
-422.943866 -338.516975 214.358989
-422.785862 -338.095631 216.307708
-422.627857 -337.674286 218.256426
-422.469853 -337.252942 220.205145
-422.311849 -336.831597 222.153863
-422.153845 -336.410253 224.102581
-421.995841 -335.988908 226.051300
-421.837836 -335.567564 228.000018
-421.679832 -335.146219 229.948737
-421.521828 -334.724875 231.897455
-421.363824 -334.303530 233.846173
-421.205820 -333.882186 235.794892
-421.047815 -333.460841 237.743610
-420.889811 -333.039496 239.692329
-420.731807 -332.618152 241.641047
-420.573803 -332.196807 243.589766
-420.415799 -331.775463 245.538484
-420.257794 -331.354118 247.487202
-420.099790 -330.932774 249.435921
-419.941786 -330.511429 251.384639
-419.783782 -330.090085 253.333358
-419.625778 -329.668740 255.282076
-419.467773 -329.247396 257.230794
-419.309769 -328.826051 259.179513
-419.151765 -328.404707 261.128231
-418.993761 -327.983362 263.076950
-418.835757 -327.562018 265.025668
-418.677752 -327.140673 266.974387
-418.519748 -326.719329 268.923105
-418.361744 -326.297984 270.871823
-418.203740 -325.876640 272.820542
-418.045736 -325.455295 274.769260
-417.887731 -325.033951 276.717979
-417.729727 -324.612606 278.666697
-417.571723 -324.191262 280.615415
-417.413719 -323.769917 282.564134
-417.255715 -323.348572 284.512852
-417.097710 -322.927228 286.461571
-416.939706 -322.505883 288.410289
-416.781702 -322.084539 290.359008
-416.623698 -321.663194 292.307726
-416.465694 -321.241850 294.256444
-416.307690 -320.820505 296.205163
