-3136.000000 -3004.000000 552.000000
-3138.000000 -3004.000000 552.000000
-3140.000000 -3004.000000 552.000000
-3142.000000 -3004.000000 552.000000
-3144.000000 -3004.000000 552.000000
-3146.000000 -3004.000000 552.000000
-3148.000000 -3004.000000 552.000000
-3150.000000 -3004.000000 552.000000
-3152.000000 -3004.000000 552.000000
-3154.000000 -3004.000000 552.000000
-3156.000000 -3004.000000 552.000000
-3158.000000 -3004.000000 552.000000
-3160.000000 -3004.000000 552.000000
-3162.000000 -3004.000000 552.000000
-3164.000000 -3004.000000 552.000000
-3166.000000 -3004.000000 552.000000
-3168.000000 -3004.000000 552.000000
-3170.000000 -3004.000000 552.000000
-3172.000000 -3004.000000 552.000000
-3174.000000 -3004.000000 552.000000
-3176.000000 -3004.000000 552.000000
-3178.000000 -3004.000000 552.000000
-3180.000000 -3004.000000 552.000000
-3184.000000 -3004.000000 552.000000
-3186.000000 -3004.000000 552.000000
-3188.000000 -3004.000000 552.000000
-3190.000000 -3004.000000 552.000000
-3192.000000 -3004.000000 552.000000
-3194.000000 -3004.000000 552.000000
-3196.000000 -3004.000000 552.000000
-3198.000000 -3004.000000 552.000000
-3200.000000 -3004.000000 552.000000
-3202.000000 -3004.000000 552.000000
-3204.000000 -3004.000000 552.000000
-3206.000000 -3004.000000 552.000000
-3208.000000 -3004.000000 552.000000
-3210.000000 -3004.000000 552.000000
-3212.000000 -3004.000000 552.000000
-3214.000000 -3004.000000 552.000000
-3216.000000 -3004.000000 552.000000
-3218.000000 -3004.000000 552.000000
-3220.000000 -3004.000000 552.000000
-3222.000000 -3004.000000 552.000000
-3224.000000 -3004.000000 552.000000
-3226.000000 -3004.000000 552.000000
-3228.000000 -3004.000000 552.000000
-3230.000000 -3004.000000 552.000000
-3232.000000 -3004.000000 552.000000
-3234.000000 -3004.000000 552.000000
-3236.000000 -3004.000000 552.000000
-3238.000000 -3004.000000 552.000000
-3240.000000 -3004.000000 552.000000
-3242.000000 -3004.000000 552.000000
-3244.000000 -3004.000000 552.000000
-3246.000000 -3004.000000 552.000000
-3248.000000 -3004.000000 552.000000
-3250.000000 -3004.000000 552.000000
-3252.000000 -3004.000000 552.000000
-3254.000000 -3004.000000 552.000000
-3256.000000 -3004.000000 552.000000
-3258.000000 -3004.000000 552.000000
-3260.000000 -3004.000000 552.000000
-3262.000000 -3004.000000 552.000000
-3264.000000 -3004.000000 552.000000
-3266.000000 -3004.000000 552.000000
-3268.000000 -3004.000000 552.000000
-3270.000000 -3004.000000 552.000000
-3272.000000 -3004.000000 552.000000
-3274.000000 -3004.000000 552.000000
-3276.000000 -3004.000000 552.000000
-3278.000000 -3004.000000 552.000000
-3280.000000 -3004.000000 552.000000
-3282.000000 -3004.000000 552.000000
-3284.000000 -3004.000000 552.000000
-3286.000000 -3004.000000 552.000000
-3288.000000 -3004.000000 552.000000
-3290.000000 -3004.000000 552.000000
-3292.000000 -3004.000000 552.000000
-3294.000000 -3004.000000 552.000000
-3296.000000 -3004.000000 552.000000
-3298.000000 -3004.000000 552.000000
-3300.000000 -3004.000000 552.000000
-3302.000000 -3004.000000 552.000000
-3304.000000 -3004.000000 552.000000
-3306.000000 -3004.000000 552.000000
-3308.000000 -3004.000000 552.000000
-3310.000000 -3004.000000 552.000000
-3312.000000 -3004.000000 552.000000
-3314.000000 -3004.000000 552.000000
-3316.000000 -3004.000000 552.000000
-3318.000000 -3004.000000 552.000000
-3320.000000 -3004.000000 552.000000
-3322.000000 -3004.000000 552.000000
-3324.000000 -3004.000000 552.000000
-3326.000000 -3004.000000 552.000000
-3328.000000 -3004.000000 552.000000
-3330.000000 -3004.000000 552.000000
-3332.000000 -3004.000000 552.000000
-3334.000000 -3004.000000 552.000000
-3336.000000 -3004.000000 552.000000
-3338.000000 -3004.000000 552.000000
-3340.000000 -3004.000000 552.000000
-3342.000000 -3004.000000 552.000000
-3344.000000 -3004.000000 552.000000
-3346.000000 -3004.000000 552.000000
-3348.000000 -3004.000000 552.000000
-3350.000000 -3004.000000 552.000000
-3352.000000 -3004.000000 552.000000
-3354.000000 -3004.000000 552.000000
-3356.000000 -3004.000000 552.000000
-3358.000000 -3004.000000 552.000000
-3360.000000 -3004.000000 552.000000
-3362.000000 -3004.000000 552.000000
-3364.000000 -3004.000000 552.000000
-3366.000000 -3004.000000 552.000000
-3368.000000 -3004.000000 552.000000
-3370.000000 -3004.000000 552.000000
-3372.000000 -3004.000000 552.000000
-3374.000000 -3004.000000 552.000000
-3376.000000 -3004.000000 552.000000
-3378.000000 -3004.000000 552.000000
-3380.000000 -3004.000000 552.000000
-3382.000000 -3004.000000 552.000000
-3384.000000 -3004.000000 552.000000
-3386.000000 -3004.000000 552.000000
-3388.000000 -3004.000000 552.000000
-3390.000000 -3004.000000 552.000000
-3392.000000 -3004.000000 552.000000
-3394.000000 -3004.000000 552.000000
-3396.000000 -3004.000000 552.000000
-3398.000000 -3004.000000 552.000000
-3400.000000 -3004.000000 552.000000
-3402.000000 -3004.000000 552.000000
-3404.000000 -3004.000000 552.000000
-3406.000000 -3004.000000 552.000000
-3408.000000 -3004.000000 552.000000
-3410.000000 -3004.000000 552.000000
-3412.000000 -3004.000000 552.000000
-3414.000000 -3004.000000 552.000000
-3416.000000 -3004.000000 552.000000
-3418.000000 -3004.000000 552.000000
-3420.000000 -3004.000000 552.000000
-3422.000000 -3004.000000 552.000000
-3424.000000 -3004.000000 552.000000
-3426.000000 -3004.000000 552.000000
-3428.000000 -3004.000000 552.000000
-3430.000000 -3004.000000 552.000000
-3432.000000 -3004.000000 552.000000
-3434.000000 -3004.000000 552.000000
-3436.000000 -3004.000000 552.000000
-3440.000000 -3004.000000 552.000000
-3441.922274 -3004.000000 552.552143
-3443.844549 -3004.000000 553.104285
-3445.766823 -3004.000000 553.656428
-3447.689097 -3004.000000 554.208570
-3449.611372 -3004.000000 554.760713
-3451.533646 -3004.000000 555.312856
-3453.455920 -3004.000000 555.864998
-3455.378194 -3004.000000 556.417141
-3457.300469 -3004.000000 556.969284
-3459.222743 -3004.000000 557.521426
-3461.145017 -3004.000000 558.073569
-3463.067292 -3004.000000 558.625711
-3464.989566 -3004.000000 559.177854
-3466.911840 -3004.000000 559.729997
-3468.834115 -3004.000000 560.282139
-3470.756389 -3004.000000 560.834282
-3472.678663 -3004.000000 561.386425
-3474.600938 -3004.000000 561.938567
-3476.523212 -3004.000000 562.490710
-3478.445486 -3004.000000 563.042852
-3480.367761 -3004.000000 563.594995
-3482.290035 -3004.000000 564.147138
-3484.212309 -3004.000000 564.699280
-3486.134583 -3004.000000 565.251423
-3488.056858 -3004.000000 565.803566
-3489.979132 -3004.000000 566.355708
-3491.901406 -3004.000000 566.907851
-3493.823681 -3004.000000 567.459993
-3495.745955 -3004.000000 568.012136
-3497.668229 -3004.000000 568.564279
-3499.590504 -3004.000000 569.116421
-3501.512778 -3004.000000 569.668564
-3503.435052 -3004.000000 570.220706
-3505.357327 -3004.000000 570.772849
-3507.279601 -3004.000000 571.324992
-3509.201875 -3004.000000 571.877134
-3511.124149 -3004.000000 572.429277
-3513.046424 -3004.000000 572.981420
-3514.968698 -3004.000000 573.533562
-3516.890972 -3004.000000 574.085705
-3518.813247 -3004.000000 574.637847
-3520.735521 -3004.000000 575.189990
-3522.657795 -3004.000000 575.742133
-3524.580070 -3004.000000 576.294275
-3526.502344 -3004.000000 576.846418
-3528.424618 -3004.000000 577.398561
-3530.346893 -3004.000000 577.950703
-3532.269167 -3004.000000 578.502846
-3534.191441 -3004.000000 579.054988
-3536.113716 -3004.000000 579.607131
-3538.035990 -3004.000000 580.159274
-3539.958264 -3004.000000 580.711416
-3541.880538 -3004.000000 581.263559
-3543.802813 -3004.000000 581.815702
-3545.725087 -3004.000000 582.367844
-3547.647361 -3004.000000 582.919987
-3549.569636 -3004.000000 583.472129
-3551.491910 -3004.000000 584.024272
-3553.414184 -3004.000000 584.576415
-3555.336459 -3004.000000 585.128557
-3557.258733 -3004.000000 585.680700
-3559.181007 -3004.000000 586.232843
-3561.103282 -3004.000000 586.784985
-3563.025556 -3004.000000 587.337128
-3564.947830 -3004.000000 587.889270
-3566.870105 -3004.000000 588.441413
-3568.792379 -3004.000000 588.993556
-3570.714653 -3004.000000 589.545698
-3572.636927 -3004.000000 590.097841
-3574.559202 -3004.000000 590.649983
-3576.481476 -3004.000000 591.202126
-3578.403750 -3004.000000 591.754269
-3580.326025 -3004.000000 592.306411
-3582.248299 -3004.000000 592.858554
-3584.170573 -3004.000000 593.410697
-3586.092848 -3004.000000 593.962839
-3588.015122 -3004.000000 594.514982
-3589.937396 -3004.000000 595.067124
-3591.859671 -3004.000000 595.619267
-3593.781945 -3004.000000 596.171410
-3595.704219 -3004.000000 596.723552
-3597.626493 -3004.000000 597.275695
-3599.548768 -3004.000000 597.827838
-3601.471042 -3004.000000 598.379980
-3603.393316 -3004.000000 598.932123
-3605.315591 -3004.000000 599.484265
-3607.237865 -3004.000000 600.036408
-3609.160139 -3004.000000 600.588551
-3611.082414 -3004.000000 601.140693
-3613.004688 -3004.000000 601.692836
-3614.926962 -3004.000000 602.244979
-3616.849237 -3004.000000 602.797121
-3618.771511 -3004.000000 603.349264
-3620.693785 -3004.000000 603.901406
-3622.616060 -3004.000000 604.453549
-3624.538334 -3004.000000 605.005692
-3626.460608 -3004.000000 605.557834
-3628.382882 -3004.000000 606.109977
-3630.305157 -3004.000000 606.662119
-3632.227431 -3004.000000 607.214262
-3634.149705 -3004.000000 607.766405
-3636.071980 -3004.000000 608.318547
-3637.994254 -3004.000000 608.870690
-3639.916528 -3004.000000 609.422833
-3641.838803 -3004.000000 609.974975
-3643.761077 -3004.000000 610.527118
-3645.683351 -3004.000000 611.079260
-3647.605626 -3004.000000 611.631403
-3649.527900 -3004.000000 612.183546
-3651.450174 -3004.000000 612.735688
-3653.372448 -3004.000000 613.287831
-3655.294723 -3004.000000 613.839974
-3657.216997 -3004.000000 614.392116
-3659.139271 -3004.000000 614.944259
-3661.061546 -3004.000000 615.496401
-3662.983820 -3004.000000 616.048544
-3664.906094 -3004.000000 616.600687
-3666.828369 -3004.000000 617.152829
-3668.750643 -3004.000000 617.704972
-3670.672917 -3004.000000 618.257115
-3672.595192 -3004.000000 618.809257
-3674.517466 -3004.000000 619.361400
-3676.439740 -3004.000000 619.913542
-3678.362015 -3004.000000 620.465685
-3680.284289 -3004.000000 621.017828
-3682.206563 -3004.000000 621.569970
-3684.128837 -3004.000000 622.122113
-3686.051112 -3004.000000 622.674256
-3687.973386 -3004.000000 623.226398
-3689.895660 -3004.000000 623.778541
-3691.817935 -3004.000000 624.330683
-3693.740209 -3004.000000 624.882826
-3695.662483 -3004.000000 625.434969
-3697.584758 -3004.000000 625.987111
-3699.507032 -3004.000000 626.539254
-3701.429306 -3004.000000 627.091396
-3703.351581 -3004.000000 627.643539
-3705.273855 -3004.000000 628.195682
-3707.196129 -3004.000000 628.747824
-3709.118404 -3004.000000 629.299967
-3711.040678 -3004.000000 629.852110
-3712.962952 -3004.000000 630.404252
-3714.885226 -3004.000000 630.956395
-3716.807501 -3004.000000 631.508537
-3718.729775 -3004.000000 632.060680
-3720.652049 -3004.000000 632.612823
-3722.574324 -3004.000000 633.164965
-3724.496598 -3004.000000 633.717108
-3726.418872 -3004.000000 634.269251
-3728.341147 -3004.000000 634.821393
-3730.263421 -3004.000000 635.373536
-3732.185695 -3004.000000 635.925678
-3734.107970 -3004.000000 636.477821
-3736.030244 -3004.000000 637.029964
-3737.952518 -3004.000000 637.582106
-3739.874792 -3004.000000 638.134249
-3741.797067 -3004.000000 638.686392
-3743.719341 -3004.000000 639.238534
-3745.641615 -3004.000000 639.790677
-3747.563890 -3004.000000 640.342819
-3749.486164 -3004.000000 640.894962
-3751.408438 -3004.000000 641.447105
-3753.330713 -3004.000000 641.999247
-3755.252987 -3004.000000 642.551390
-3757.175261 -3004.000000 643.103532
-3759.097536 -3004.000000 643.655675
-3761.019810 -3004.000000 644.207818
-3762.942084 -3004.000000 644.759960
-3764.864359 -3004.000000 645.312103
-3766.786633 -3004.000000 645.864246
-3768.708907 -3004.000000 646.416388
-3770.631181 -3004.000000 646.968531
-3772.553456 -3004.000000 647.520673
-3774.475730 -3004.000000 648.072816
-3776.398004 -3004.000000 648.624959
-3778.320279 -3004.000000 649.177101
-3780.242553 -3004.000000 649.729244
-3782.164827 -3004.000000 650.281387
-3784.087102 -3004.000000 650.833529
-3786.009376 -3004.000000 651.385672
-3787.931650 -3004.000000 651.937814
-3789.853925 -3004.000000 652.489957
-3791.776199 -3004.000000 653.042100
-3793.698473 -3004.000000 653.594242
-3795.620747 -3004.000000 654.146385
-3797.543022 -3004.000000 654.698528
-3799.465296 -3004.000000 655.250670
-3801.387570 -3004.000000 655.802813
-3803.309845 -3004.000000 656.354955
-3805.232119 -3004.000000 656.907098
-3807.154393 -3004.000000 657.459241
-3809.076668 -3004.000000 658.011383
-3810.998942 -3004.000000 658.563526
-3812.921216 -3004.000000 659.115669
-3814.843491 -3004.000000 659.667811
-3816.765765 -3004.000000 660.219954
-3818.688039 -3004.000000 660.772096
-3820.610314 -3004.000000 661.324239
-3822.532588 -3004.000000 661.876382
-3824.454862 -3004.000000 662.428524
-3826.377136 -3004.000000 662.980667
-3828.299411 -3004.000000 663.532809
-3830.221685 -3004.000000 664.084952
-3832.143959 -3004.000000 664.637095
-3834.066234 -3004.000000 665.189237
-3835.988508 -3004.000000 665.741380
-3837.910782 -3004.000000 666.293523
-3839.833057 -3004.000000 666.845665
-3841.755331 -3004.000000 667.397808
-3843.677605 -3004.000000 667.949950
-3845.599880 -3004.000000 668.502093
-3847.522154 -3004.000000 669.054236
-3849.444428 -3004.000000 669.606378
-3851.366703 -3004.000000 670.158521
-3853.288977 -3004.000000 670.710664
-3855.211251 -3004.000000 671.262806
-3857.133525 -3004.000000 671.814949
-3859.055800 -3004.000000 672.367091
-3860.978074 -3004.000000 672.919234
-3862.900348 -3004.000000 673.471377
-3864.822623 -3004.000000 674.023519
-3866.744897 -3004.000000 674.575662
-3868.667171 -3004.000000 675.127805
-3870.589446 -3004.000000 675.679947
-3872.511720 -3004.000000 676.232090
-3874.433994 -3004.000000 676.784232
-3876.356269 -3004.000000 677.336375
-3878.278543 -3004.000000 677.888518
-3880.200817 -3004.000000 678.440660
-3882.123091 -3004.000000 678.992803
-3884.045366 -3004.000000 679.544945
-3885.967640 -3004.000000 680.097088
-3887.889914 -3004.000000 680.649231
-3889.812189 -3004.000000 681.201373
-3891.734463 -3004.000000 681.753516
-3893.656737 -3004.000000 682.305659
-3895.579012 -3004.000000 682.857801
-3897.501286 -3004.000000 683.409944
-3899.423560 -3004.000000 683.962086
-3901.345835 -3004.000000 684.514229
-3903.268109 -3004.000000 685.066372
-3905.190383 -3004.000000 685.618514
-3907.112658 -3004.000000 686.170657
-3909.034932 -3004.000000 686.722800
-3910.957206 -3004.000000 687.274942
-3912.879480 -3004.000000 687.827085
-3914.801755 -3004.000000 688.379227
-3916.724029 -3004.000000 688.931370
-3918.646303 -3004.000000 689.483513
-3920.568578 -3004.000000 690.035655
-3922.490852 -3004.000000 690.587798
-3924.413126 -3004.000000 691.139941
-3926.335401 -3004.000000 691.692083
-3928.257675 -3004.000000 692.244226
-3930.179949 -3004.000000 692.796368
-3932.102224 -3004.000000 693.348511
-3934.024498 -3004.000000 693.900654
-3935.946772 -3004.000000 694.452796
-3937.869046 -3004.000000 695.004939
-3939.791321 -3004.000000 695.557082
-3941.713595 -3004.000000 696.109224
-3943.635869 -3004.000000 696.661367
-3945.558144 -3004.000000 697.213509
-3947.480418 -3004.000000 697.765652
-3949.402692 -3004.000000 698.317795
-3951.324967 -3004.000000 698.869937
-3953.247241 -3004.000000 699.422080
-3955.169515 -3004.000000 699.974222
-3957.091790 -3004.000000 700.526365
-3959.014064 -3004.000000 701.078508
-3960.936338 -3004.000000 701.630650
-3962.858613 -3004.000000 702.182793
-3964.780887 -3004.000000 702.734936
-3966.703161 -3004.000000 703.287078
-3968.625435 -3004.000000 703.839221
-3970.547710 -3004.000000 704.391363
-3972.469984 -3004.000000 704.943506
-3974.392258 -3004.000000 705.495649
-3976.314533 -3004.000000 706.047791
-3978.236807 -3004.000000 706.599934
-3980.159081 -3004.000000 707.152077
-3982.081356 -3004.000000 707.704219
-3984.003630 -3004.000000 708.256362
-3985.925904 -3004.000000 708.808504
-3987.848179 -3004.000000 709.360647
-3989.770453 -3004.000000 709.912790
-3991.692727 -3004.000000 710.464932
-3993.615002 -3004.000000 711.017075
-3995.537276 -3004.000000 711.569218
-3997.459550 -3004.000000 712.121360
-3999.381824 -3004.000000 712.673503
-4001.304099 -3004.000000 713.225645
-4003.226373 -3004.000000 713.777788
-4005.148647 -3004.000000 714.329931
-4007.070922 -3004.000000 714.882073
-4008.993196 -3004.000000 715.434216
-4010.915470 -3004.000000 715.986358
-4012.837745 -3004.000000 716.538501
-4014.760019 -3004.000000 717.090644
-4016.682293 -3004.000000 717.642786
-4018.604568 -3004.000000 718.194929
-4020.526842 -3004.000000 718.747072
-4022.449116 -3004.000000 719.299214
-4024.371390 -3004.000000 719.851357
-4026.293665 -3004.000000 720.403499
-4028.215939 -3004.000000 720.955642
-4030.138213 -3004.000000 721.507785
-4032.060488 -3004.000000 722.059927
-4033.982762 -3004.000000 722.612070
-4035.905036 -3004.000000 723.164213
-4037.827311 -3004.000000 723.716355
-4039.749585 -3004.000000 724.268498
-4041.671859 -3004.000000 724.820640
-4043.594134 -3004.000000 725.372783
-4045.516408 -3004.000000 725.924926
-4047.438682 -3004.000000 726.477068
-4049.360957 -3004.000000 727.029211
-4051.283231 -3004.000000 727.581354
-4053.205505 -3004.000000 728.133496
-4055.127779 -3004.000000 728.685639
-4057.050054 -3004.000000 729.237781
-4058.972328 -3004.000000 729.789924
-4060.894602 -3004.000000 730.342067
-4062.816877 -3004.000000 730.894209
-4064.739151 -3004.000000 731.446352
-4066.661425 -3004.000000 731.998495
-4068.583700 -3004.000000 732.550637
-4070.505974 -3004.000000 733.102780
-4072.428248 -3004.000000 733.654922
-4074.350523 -3004.000000 734.207065
-4076.272797 -3004.000000 734.759208
-4078.195071 -3004.000000 735.311350
-4080.117345 -3004.000000 735.863493
-4082.039620 -3004.000000 736.415635
-4083.961894 -3004.000000 736.967778
-4085.884168 -3004.000000 737.519921
-4087.806443 -3004.000000 738.072063
-4089.728717 -3004.000000 738.624206
-4091.650991 -3004.000000 739.176349
-4093.573266 -3004.000000 739.728491
-4095.495540 -3004.000000 740.280634
-4097.417814 -3004.000000 740.832776
-4099.340089 -3004.000000 741.384919
-4101.262363 -3004.000000 741.937062
-4103.184637 -3004.000000 742.489204
-4105.106912 -3004.000000 743.041347
-4107.029186 -3004.000000 743.593490
-4108.951460 -3004.000000 744.145632
-4110.873734 -3004.000000 744.697775
-4112.796009 -3004.000000 745.249917
-4114.718283 -3004.000000 745.802060
-4116.640557 -3004.000000 746.354203
-4118.562832 -3004.000000 746.906345
-4120.485106 -3004.000000 747.458488
-4122.407380 -3004.000000 748.010631
-4124.329655 -3004.000000 748.562773
-4126.251929 -3004.000000 749.114916
-4128.174203 -3004.000000 749.667058
-4130.096478 -3004.000000 750.219201
-4132.018752 -3004.000000 750.771344
-4133.941026 -3004.000000 751.323486
-4135.863301 -3004.000000 751.875629
-4137.785575 -3004.000000 752.427771
-4139.707849 -3004.000000 752.979914
-4141.630123 -3004.000000 753.532057
-4143.552398 -3004.000000 754.084199
-4145.474672 -3004.000000 754.636342
-4147.396946 -3004.000000 755.188485
-4149.319221 -3004.000000 755.740627
-4151.241495 -3004.000000 756.292770
-4153.163769 -3004.000000 756.844912
-4155.086044 -3004.000000 757.397055
-4157.008318 -3004.000000 757.949198
-4158.930592 -3004.000000 758.501340
-4160.852867 -3004.000000 759.053483
-4162.775141 -3004.000000 759.605626
-4164.697415 -3004.000000 760.157768
-4166.619689 -3004.000000 760.709911
-4168.541964 -3004.000000 761.262053
-4170.464238 -3004.000000 761.814196
-4172.386512 -3004.000000 762.366339
-4174.308787 -3004.000000 762.918481
-4176.231061 -3004.000000 763.470624
-4178.153335 -3004.000000 764.022767
-4180.075610 -3004.000000 764.574909
-4181.997884 -3004.000000 765.127052
-4183.920158 -3004.000000 765.679194
-4185.842433 -3004.000000 766.231337
-4187.764707 -3004.000000 766.783480
-4189.686981 -3004.000000 767.335622
-4192.000000 -3004.000000 768.000000
-4193.575510 -3004.000000 766.768022
-4195.151020 -3004.000000 765.536045
-4196.726529 -3004.000000 764.304067
-4198.302039 -3004.000000 763.072090
-4199.877549 -3004.000000 761.840112
-4201.453059 -3004.000000 760.608134
-4203.028569 -3004.000000 759.376157
-4204.604079 -3004.000000 758.144179
-4206.179588 -3004.000000 756.912202
-4207.755098 -3004.000000 755.680224
-4209.330608 -3004.000000 754.448246
-4210.906118 -3004.000000 753.216269
-4212.481628 -3004.000000 751.984291
-4214.057137 -3004.000000 750.752314
-4215.632647 -3004.000000 749.520336
-4217.208157 -3004.000000 748.288358
-4218.783667 -3004.000000 747.056381
-4220.359177 -3004.000000 745.824403
-4221.934687 -3004.000000 744.592426
-4223.510196 -3004.000000 743.360448
-4225.085706 -3004.000000 742.128470
-4226.661216 -3004.000000 740.896493
-4228.236726 -3004.000000 739.664515
-4229.812236 -3004.000000 738.432538
-4231.387745 -3004.000000 737.200560
-4232.963255 -3004.000000 735.968582
-4234.538765 -3004.000000 734.736605
-4236.114275 -3004.000000 733.504627
-4237.689785 -3004.000000 732.272650
-4239.265295 -3004.000000 731.040672
-4240.840804 -3004.000000 729.808694
-4242.416314 -3004.000000 728.576717
-4243.991824 -3004.000000 727.344739
-4245.567334 -3004.000000 726.112762
-4247.142844 -3004.000000 724.880784
-4248.718353 -3004.000000 723.648806
-4250.293863 -3004.000000 722.416829
-4251.869373 -3004.000000 721.184851
-4253.444883 -3004.000000 719.952874
-4255.020393 -3004.000000 718.720896
-4256.595903 -3004.000000 717.488918
-4258.171412 -3004.000000 716.256941
-4259.746922 -3004.000000 715.024963
-4261.322432 -3004.000000 713.792986
-4262.897942 -3004.000000 712.561008
-4264.473452 -3004.000000 711.329030
-4266.048961 -3004.000000 710.097053
-4267.624471 -3004.000000 708.865075
-4269.199981 -3004.000000 707.633097
-4270.775491 -3004.000000 706.401120
-4272.351001 -3004.000000 705.169142
-4273.926511 -3004.000000 703.937165
-4275.502020 -3004.000000 702.705187
-4277.077530 -3004.000000 701.473209
-4278.653040 -3004.000000 700.241232
-4280.228550 -3004.000000 699.009254
-4281.804060 -3004.000000 697.777277
-4283.379569 -3004.000000 696.545299
-4284.955079 -3004.000000 695.313321
-4286.530589 -3004.000000 694.081344
-4288.106099 -3004.000000 692.849366
-4289.681609 -3004.000000 691.617389
-4291.257119 -3004.000000 690.385411
-4292.832628 -3004.000000 689.153433
-4294.408138 -3004.000000 687.921456
-4295.983648 -3004.000000 686.689478
-4297.559158 -3004.000000 685.457501
-4299.134668 -3004.000000 684.225523
-4300.710177 -3004.000000 682.993545
-4302.285687 -3004.000000 681.761568
-4303.861197 -3004.000000 680.529590
-4305.436707 -3004.000000 679.297613
-4307.012217 -3004.000000 678.065635
-4308.587727 -3004.000000 676.833657
-4310.163236 -3004.000000 675.601680
-4311.738746 -3004.000000 674.369702
-4313.314256 -3004.000000 673.137725
-4314.889766 -3004.000000 671.905747
-4316.465276 -3004.000000 670.673769
-4318.040785 -3004.000000 669.441792
-4319.616295 -3004.000000 668.209814
-4321.191805 -3004.000000 666.977837
-4322.767315 -3004.000000 665.745859
-4324.342825 -3004.000000 664.513881
-4325.918335 -3004.000000 663.281904
-4327.493844 -3004.000000 662.049926
-4329.069354 -3004.000000 660.817949
-4330.644864 -3004.000000 659.585971
-4332.220374 -3004.000000 658.353993
-4333.795884 -3004.000000 657.122016
-4335.371393 -3004.000000 655.890038
-4336.946903 -3004.000000 654.658061
-4338.522413 -3004.000000 653.426083
-4340.097923 -3004.000000 652.194105
-4341.673433 -3004.000000 650.962128
-4343.248943 -3004.000000 649.730150
-4344.824452 -3004.000000 648.498173
-4346.399962 -3004.000000 647.266195
-4347.975472 -3004.000000 646.034217
-4349.550982 -3004.000000 644.802240
-4351.126492 -3004.000000 643.570262
-4352.702001 -3004.000000 642.338285
-4354.277511 -3004.000000 641.106307
-4355.853021 -3004.000000 639.874329
-4357.428531 -3004.000000 638.642352
-4359.004041 -3004.000000 637.410374
-4360.579551 -3004.000000 636.178397
-4362.155060 -3004.000000 634.946419
-4363.730570 -3004.000000 633.714441
-4365.306080 -3004.000000 632.482464
-4366.881590 -3004.000000 631.250486
-4368.457100 -3004.000000 630.018509
-4370.032609 -3004.000000 628.786531
-4371.608119 -3004.000000 627.554553
-4373.183629 -3004.000000 626.322576
-4374.759139 -3004.000000 625.090598
-4376.334649 -3004.000000 623.858621
-4377.910159 -3004.000000 622.626643
-4379.485668 -3004.000000 621.394665
-4381.061178 -3004.000000 620.162688
-4382.636688 -3004.000000 618.930710
-4384.212198 -3004.000000 617.698733
-4385.787708 -3004.000000 616.466755
-4387.363217 -3004.000000 615.234777
-4388.938727 -3004.000000 614.002800
-4390.514237 -3004.000000 612.770822
-4392.089747 -3004.000000 611.538845
-4393.665257 -3004.000000 610.306867
-4395.240767 -3004.000000 609.074889
-4396.816276 -3004.000000 607.842912
-4398.391786 -3004.000000 606.610934
-4399.967296 -3004.000000 605.378957
-4401.542806 -3004.000000 604.146979
-4403.118316 -3004.000000 602.915001
-4404.693825 -3004.000000 601.683024
-4406.269335 -3004.000000 600.451046
-4407.844845 -3004.000000 599.219068
-4409.420355 -3004.000000 597.987091
-4410.995865 -3004.000000 596.755113
-4412.571375 -3004.000000 595.523136
-4414.146884 -3004.000000 594.291158
-4415.722394 -3004.000000 593.059180
-4417.297904 -3004.000000 591.827203
-4418.873414 -3004.000000 590.595225
-4420.448924 -3004.000000 589.363248
-4422.024433 -3004.000000 588.131270
-4423.599943 -3004.000000 586.899292
-4425.175453 -3004.000000 585.667315
-4426.750963 -3004.000000 584.435337
-4428.326473 -3004.000000 583.203360
-4429.901983 -3004.000000 581.971382
-4431.477492 -3004.000000 580.739404
-4433.053002 -3004.000000 579.507427
-4434.628512 -3004.000000 578.275449
-4436.204022 -3004.000000 577.043472
-4437.779532 -3004.000000 575.811494
-4439.355041 -3004.000000 574.579516
-4440.930551 -3004.000000 573.347539
-4442.506061 -3004.000000 572.115561
-4444.081571 -3004.000000 570.883584
-4445.657081 -3004.000000 569.651606
-4447.232591 -3004.000000 568.419628
-4448.808100 -3004.000000 567.187651
-4450.383610 -3004.000000 565.955673
-4451.959120 -3004.000000 564.723696
-4453.534630 -3004.000000 563.491718
-4455.110140 -3004.000000 562.259740
-4456.685649 -3004.000000 561.027763
-4458.261159 -3004.000000 559.795785
-4459.836669 -3004.000000 558.563808
-4461.412179 -3004.000000 557.331830
-4462.987689 -3004.000000 556.099852
-4464.563199 -3004.000000 554.867875
-4466.138708 -3004.000000 553.635897
-4467.714218 -3004.000000 552.403920
-4469.289728 -3004.000000 551.171942
-4470.865238 -3004.000000 549.939964
-4472.440748 -3004.000000 548.707987
-4474.016257 -3004.000000 547.476009
-4475.591767 -3004.000000 546.244032
-4477.167277 -3004.000000 545.012054
-4478.742787 -3004.000000 543.780076
-4480.318297 -3004.000000 542.548099
-4481.893807 -3004.000000 541.316121
-4483.469316 -3004.000000 540.084144
-4485.044826 -3004.000000 538.852166
-4486.620336 -3004.000000 537.620188
-4488.195846 -3004.000000 536.388211
-4489.771356 -3004.000000 535.156233
-4491.346865 -3004.000000 533.924256
-4492.922375 -3004.000000 532.692278
-4494.497885 -3004.000000 531.460300
-4496.073395 -3004.000000 530.228323
-4497.648905 -3004.000000 528.996345
-4499.224415 -3004.000000 527.764368
-4500.799924 -3004.000000 526.532390
-4502.375434 -3004.000000 525.300412
-4503.950944 -3004.000000 524.068435
-4505.526454 -3004.000000 522.836457
-4507.101964 -3004.000000 521.604480
-4508.677473 -3004.000000 520.372502
-4510.252983 -3004.000000 519.140524
-4511.828493 -3004.000000 517.908547
-4513.404003 -3004.000000 516.676569
-4514.979513 -3004.000000 515.444592
-4516.555023 -3004.000000 514.212614
-4518.130532 -3004.000000 512.980636
-4519.706042 -3004.000000 511.748659
-4521.281552 -3004.000000 510.516681
-4522.857062 -3004.000000 509.284704
-4524.432572 -3004.000000 508.052726
-4526.008081 -3004.000000 506.820748
-4527.583591 -3004.000000 505.588771
-4529.159101 -3004.000000 504.356793
-4530.734611 -3004.000000 503.124816
-4532.310121 -3004.000000 501.892838
-4533.885631 -3004.000000 500.660860
-4535.461140 -3004.000000 499.428883
-4537.036650 -3004.000000 498.196905
-4538.612160 -3004.000000 496.964928
-4540.187670 -3004.000000 495.732950
-4541.763180 -3004.000000 494.500972
-4543.338689 -3004.000000 493.268995
-4544.914199 -3004.000000 492.037017
-4546.489709 -3004.000000 490.805039
-4548.065219 -3004.000000 489.573062
-4549.640729 -3004.000000 488.341084
-4551.216239 -3004.000000 487.109107
-4552.791748 -3004.000000 485.877129
-4554.367258 -3004.000000 484.645151
-4555.942768 -3004.000000 483.413174
-4557.518278 -3004.000000 482.181196
-4559.093788 -3004.000000 480.949219
-4560.669297 -3004.000000 479.717241
-4562.244807 -3004.000000 478.485263
-4563.820317 -3004.000000 477.253286
-4565.395827 -3004.000000 476.021308
-4566.971337 -3004.000000 474.789331
-4568.546847 -3004.000000 473.557353
-4570.122356 -3004.000000 472.325375
-4571.697866 -3004.000000 471.093398
-4573.273376 -3004.000000 469.861420
-4574.848886 -3004.000000 468.629443
-4576.424396 -3004.000000 467.397465
-4577.999905 -3004.000000 466.165487
-4579.575415 -3004.000000 464.933510
-4581.150925 -3004.000000 463.701532
-4582.726435 -3004.000000 462.469555
-4584.301945 -3004.000000 461.237577
-4585.877455 -3004.000000 460.005599
-4587.452964 -3004.000000 458.773622
-4589.028474 -3004.000000 457.541644
-4590.603984 -3004.000000 456.309667
-4592.179494 -3004.000000 455.077689
-4593.755004 -3004.000000 453.845711
-4595.330513 -3004.000000 452.613734
-4596.906023 -3004.000000 451.381756
-4598.481533 -3004.000000 450.149779
-4600.057043 -3004.000000 448.917801
-4601.632553 -3004.000000 447.685823
-4603.208063 -3004.000000 446.453846
-4604.783572 -3004.000000 445.221868
-4606.359082 -3004.000000 443.989891
-4607.934592 -3004.000000 442.757913
-4609.510102 -3004.000000 441.525935
-4611.085612 -3004.000000 440.293958
-4612.661121 -3004.000000 439.061980
-4614.236631 -3004.000000 437.830003
-4615.812141 -3004.000000 436.598025
-4617.387651 -3004.000000 435.366047
-4618.963161 -3004.000000 434.134070
-4620.538671 -3004.000000 432.902092
-4622.114180 -3004.000000 431.670115
-4623.689690 -3004.000000 430.438137
-4625.265200 -3004.000000 429.206159
-4626.840710 -3004.000000 427.974182
-4628.416220 -3004.000000 426.742204
-4629.991729 -3004.000000 425.510227
-4631.567239 -3004.000000 424.278249
-4633.142749 -3004.000000 423.046271
-4634.718259 -3004.000000 421.814294
-4636.293769 -3004.000000 420.582316
-4637.869279 -3004.000000 419.350339
-4639.444788 -3004.000000 418.118361
-4641.020298 -3004.000000 416.886383
-4642.595808 -3004.000000 415.654406
-4644.171318 -3004.000000 414.422428
-4645.746828 -3004.000000 413.190451
-4647.322337 -3004.000000 411.958473
-4648.897847 -3004.000000 410.726495
-4650.473357 -3004.000000 409.494518
-4652.048867 -3004.000000 408.262540
-4653.624377 -3004.000000 407.030563
-4655.199887 -3004.000000 405.798585
-4656.775396 -3004.000000 404.566607
-4658.350906 -3004.000000 403.334630
-4659.926416 -3004.000000 402.102652
-4661.501926 -3004.000000 400.870675
-4663.077436 -3004.000000 399.638697
-4664.652945 -3004.000000 398.406719
-4666.228455 -3004.000000 397.174742
-4667.803965 -3004.000000 395.942764
-4669.379475 -3004.000000 394.710787
-4670.954985 -3004.000000 393.478809
-4672.530495 -3004.000000 392.246831
-4674.106004 -3004.000000 391.014854
-4675.681514 -3004.000000 389.782876
-4677.257024 -3004.000000 388.550899
-4678.832534 -3004.000000 387.318921
-4680.408044 -3004.000000 386.086943
-4681.983553 -3004.000000 384.854966
-4683.559063 -3004.000000 383.622988
-4685.134573 -3004.000000 382.391010
-4686.710083 -3004.000000 381.159033
-4688.285593 -3004.000000 379.927055
-4689.861103 -3004.000000 378.695078
-4691.436612 -3004.000000 377.463100
-4693.012122 -3004.000000 376.231122
-4694.587632 -3004.000000 374.999145
-4696.163142 -3004.000000 373.767167
-4697.738652 -3004.000000 372.535190
-4699.314161 -3004.000000 371.303212
-4700.889671 -3004.000000 370.071234
-4702.465181 -3004.000000 368.839257
-4704.040691 -3004.000000 367.607279
-4705.616201 -3004.000000 366.375302
-4707.191711 -3004.000000 365.143324
-4708.767220 -3004.000000 363.911346
-4710.342730 -3004.000000 362.679369
-4711.918240 -3004.000000 361.447391
-4713.493750 -3004.000000 360.215414
-4715.069260 -3004.000000 358.983436
-4716.644769 -3004.000000 357.751458
-4718.220279 -3004.000000 356.519481
-4719.795789 -3004.000000 355.287503
-4721.371299 -3004.000000 354.055526
-4724.000000 -3004.000000 352.000000
-4724.148499 -3003.498817 350.069517
-4724.296997 -3002.997634 348.139034
-4724.445496 -3002.496451 346.208552
-4724.593995 -3001.995268 344.278069
-4724.742493 -3001.494085 342.347586
-4724.890992 -3000.992902 340.417103
-4725.039491 -3000.491719 338.486621
-4725.187989 -2999.990536 336.556138
-4725.336488 -2999.489353 334.625655
-4725.484987 -2998.988170 332.695172
-4725.633485 -2998.486987 330.764690
-4725.781984 -2997.985804 328.834207
-4725.930483 -2997.484621 326.903724
-4726.078981 -2996.983438 324.973241
-4726.227480 -2996.482255 323.042758
-4726.375979 -2995.981072 321.112276
-4726.524477 -2995.479889 319.181793
-4726.672976 -2994.978706 317.251310
-4726.821475 -2994.477522 315.320827
-4726.969973 -2993.976339 313.390345
-4727.118472 -2993.475156 311.459862
-4727.266971 -2992.973973 309.529379
-4727.415470 -2992.472790 307.598896
-4727.563968 -2991.971607 305.668414
-4727.712467 -2991.470424 303.737931
-4727.860966 -2990.969241 301.807448
-4728.009464 -2990.468058 299.876965
-4728.157963 -2989.966875 297.946482
-4728.306462 -2989.465692 296.016000
-4728.454960 -2988.964509 294.085517
-4728.603459 -2988.463326 292.155034
-4728.751958 -2987.962143 290.224551
-4728.900456 -2987.460960 288.294069
-4729.048955 -2986.959777 286.363586
-4729.197454 -2986.458594 284.433103
-4729.345952 -2985.957411 282.502620
-4729.494451 -2985.456228 280.572138
-4729.642950 -2984.955045 278.641655
-4729.791448 -2984.453862 276.711172
-4729.939947 -2983.952679 274.780689
-4730.088446 -2983.451496 272.850207
-4730.236944 -2982.950313 270.919724
-4730.385443 -2982.449130 268.989241
-4730.533942 -2981.947947 267.058758
-4730.682440 -2981.446764 265.128275
-4730.830939 -2980.945581 263.197793
-4730.979438 -2980.444398 261.267310
-4731.127936 -2979.943215 259.336827
-4731.276435 -2979.442032 257.406344
-4731.424934 -2978.940849 255.475862
-4731.573432 -2978.439666 253.545379
-4731.721931 -2977.938483 251.614896
-4731.870430 -2977.437300 249.684413
-4732.018928 -2976.936117 247.753931
-4732.167427 -2976.434934 245.823448
-4732.315926 -2975.933751 243.892965
-4732.464424 -2975.432567 241.962482
-4732.612923 -2974.931384 240.031999
-4732.761422 -2974.430201 238.101517
-4732.909920 -2973.929018 236.171034
-4733.058419 -2973.427835 234.240551
-4733.206918 -2972.926652 232.310068
-4733.355416 -2972.425469 230.379586
-4733.503915 -2971.924286 228.449103
-4733.652414 -2971.423103 226.518620
-4733.800913 -2970.921920 224.588137
-4733.949411 -2970.420737 222.657655
-4734.097910 -2969.919554 220.727172
-4734.246409 -2969.418371 218.796689
-4734.394907 -2968.917188 216.866206
-4734.543406 -2968.416005 214.935723
-4734.691905 -2967.914822 213.005241
-4734.840403 -2967.413639 211.074758
-4734.988902 -2966.912456 209.144275
-4735.137401 -2966.411273 207.213792
-4735.285899 -2965.910090 205.283310
-4735.434398 -2965.408907 203.352827
-4735.582897 -2964.907724 201.422344
-4735.731395 -2964.406541 199.491861
-4735.879894 -2963.905358 197.561379
-4736.028393 -2963.404175 195.630896
-4736.176891 -2962.902992 193.700413
-4736.325390 -2962.401809 191.769930
-4736.473889 -2961.900626 189.839447
-4736.622387 -2961.399443 187.908965
-4736.770886 -2960.898260 185.978482
-4736.919385 -2960.397077 184.047999
-4737.067883 -2959.895894 182.117516
-4737.216382 -2959.394711 180.187034
-4737.364881 -2958.893528 178.256551
-4737.513379 -2958.392345 176.326068
-4737.661878 -2957.891162 174.395585
-4737.810377 -2957.389979 172.465103
-4737.958875 -2956.888796 170.534620
-4738.107374 -2956.387612 168.604137
-4738.255873 -2955.886429 166.673654
-4738.404371 -2955.385246 164.743171
-4738.552870 -2954.884063 162.812689
-4738.701369 -2954.382880 160.882206
-4738.849867 -2953.881697 158.951723
-4738.998366 -2953.380514 157.021240
-4739.146865 -2952.879331 155.090758
-4739.295363 -2952.378148 153.160275
-4739.443862 -2951.876965 151.229792
-4739.592361 -2951.375782 149.299309
-4739.740859 -2950.874599 147.368827
-4739.889358 -2950.373416 145.438344
-4740.037857 -2949.872233 143.507861
-4740.186356 -2949.371050 141.577378
-4740.334854 -2948.869867 139.646896
-4740.483353 -2948.368684 137.716413
-4740.631852 -2947.867501 135.785930
-4740.780350 -2947.366318 133.855447
-4740.928849 -2946.865135 131.924964
-4741.077348 -2946.363952 129.994482
-4741.225846 -2945.862769 128.063999
-4741.374345 -2945.361586 126.133516
-4741.522844 -2944.860403 124.203033
-4741.671342 -2944.359220 122.272551
-4741.819841 -2943.858037 120.342068
-4741.968340 -2943.356854 118.411585
-4742.116838 -2942.855671 116.481102
-4742.265337 -2942.354488 114.550620
-4742.413836 -2941.853305 112.620137
-4742.562334 -2941.352122 110.689654
-4742.710833 -2940.850939 108.759171
-4742.859332 -2940.349756 106.828688
-4743.007830 -2939.848573 104.898206
-4743.156329 -2939.347390 102.967723
-4743.304828 -2938.846207 101.037240
-4743.453326 -2938.345024 99.106757
-4743.601825 -2937.843841 97.176275
-4743.750324 -2937.342657 95.245792
-4743.898822 -2936.841474 93.315309
-4744.047321 -2936.340291 91.384826
-4744.195820 -2935.839108 89.454344
-4744.344318 -2935.337925 87.523861
-4744.492817 -2934.836742 85.593378
-4744.641316 -2934.335559 83.662895
-4744.789814 -2933.834376 81.732412
-4744.938313 -2933.333193 79.801930
-4745.086812 -2932.832010 77.871447
-4745.235310 -2932.330827 75.940964
-4745.383809 -2931.829644 74.010481
-4745.532308 -2931.328461 72.079999
-4745.680806 -2930.827278 70.149516
-4745.829305 -2930.326095 68.219033
-4745.977804 -2929.824912 66.288550
-4746.126302 -2929.323729 64.358068
-4746.274801 -2928.822546 62.427585
-4746.423300 -2928.321363 60.497102
-4746.571799 -2927.820180 58.566619
-4746.720297 -2927.318997 56.636136
-4746.868796 -2926.817814 54.705654
-4747.017295 -2926.316631 52.775171
-4747.165793 -2925.815448 50.844688
-4747.314292 -2925.314265 48.914205
-4747.462791 -2924.813082 46.983723
-4747.611289 -2924.311899 45.053240
-4747.759788 -2923.810716 43.122757
-4747.908287 -2923.309533 41.192274
-4748.056785 -2922.808350 39.261792
-4748.205284 -2922.307167 37.331309
-4748.353783 -2921.805984 35.400826
-4748.502281 -2921.304801 33.470343
-4748.650780 -2920.803618 31.539861
-4748.799279 -2920.302435 29.609378
-4748.947777 -2919.801252 27.678895
-4749.096276 -2919.300069 25.748412
-4749.244775 -2918.798886 23.817929
-4749.393273 -2918.297702 21.887447
-4749.541772 -2917.796519 19.956964
-4749.690271 -2917.295336 18.026481
-4749.838769 -2916.794153 16.095998
-4749.987268 -2916.292970 14.165516
-4750.135767 -2915.791787 12.235033
-4750.284265 -2915.290604 10.304550
-4750.432764 -2914.789421 8.374067
-4750.581263 -2914.288238 6.443585
-4750.729761 -2913.787055 4.513102
-4750.878260 -2913.285872 2.582619
-4751.026759 -2912.784689 0.652136
-4751.175257 -2912.283506 -1.278347
-4751.323756 -2911.782323 -3.208829
-4751.472255 -2911.281140 -5.139312
-4751.620753 -2910.779957 -7.069795
-4751.769252 -2910.278774 -9.000278
-4751.917751 -2909.777591 -10.930760
-4752.066249 -2909.276408 -12.861243
-4752.214748 -2908.775225 -14.791726
-4752.363247 -2908.274042 -16.722209
-4752.511745 -2907.772859 -18.652691
-4752.660244 -2907.271676 -20.583174
-4752.808743 -2906.770493 -22.513657
-4752.957242 -2906.269310 -24.444140
-4753.105740 -2905.768127 -26.374623
-4753.254239 -2905.266944 -28.305105
-4753.402738 -2904.765761 -30.235588
-4753.551236 -2904.264578 -32.166071
-4753.699735 -2903.763395 -34.096554
-4753.848234 -2903.262212 -36.027036
-4753.996732 -2902.761029 -37.957519
-4754.145231 -2902.259846 -39.888002
-4754.293730 -2901.758663 -41.818485
-4754.442228 -2901.257480 -43.748967
-4754.590727 -2900.756297 -45.679450
-4754.739226 -2900.255114 -47.609933
-4754.887724 -2899.753931 -49.540416
-4755.036223 -2899.252747 -51.470899
-4755.184722 -2898.751564 -53.401381
-4755.333220 -2898.250381 -55.331864
-4755.481719 -2897.749198 -57.262347
-4755.630218 -2897.248015 -59.192830
-4755.778716 -2896.746832 -61.123312
-4756.000000 -2896.000000 -64.000000
-4754.008781 -2896.000000 -64.187209
-4752.017562 -2896.000000 -64.374417
-4750.026343 -2896.000000 -64.561626
-4748.035124 -2896.000000 -64.748834
-4746.043905 -2896.000000 -64.936043
-4744.052686 -2896.000000 -65.123252
-4742.061467 -2896.000000 -65.310460
-4740.070248 -2896.000000 -65.497669
-4738.079029 -2896.000000 -65.684878
-4736.087810 -2896.000000 -65.872086
-4734.096591 -2896.000000 -66.059295
-4732.105373 -2896.000000 -66.246503
-4730.114154 -2896.000000 -66.433712
-4728.122935 -2896.000000 -66.620921
-4726.131716 -2896.000000 -66.808129
-4724.140497 -2896.000000 -66.995338
-4722.149278 -2896.000000 -67.182547
-4720.158059 -2896.000000 -67.369755
-4718.166840 -2896.000000 -67.556964
-4716.175621 -2896.000000 -67.744172
-4714.184402 -2896.000000 -67.931381
-4712.193183 -2896.000000 -68.118590
-4710.201964 -2896.000000 -68.305798
-4708.210745 -2896.000000 -68.493007
-4706.219526 -2896.000000 -68.680215
-4704.228307 -2896.000000 -68.867424
-4702.237088 -2896.000000 -69.054633
-4700.245869 -2896.000000 -69.241841
-4698.254650 -2896.000000 -69.429050
-4696.263431 -2896.000000 -69.616259
-4694.272212 -2896.000000 -69.803467
-4692.280993 -2896.000000 -69.990676
-4690.289774 -2896.000000 -70.177884
-4688.298555 -2896.000000 -70.365093
-4686.307337 -2896.000000 -70.552302
-4684.316118 -2896.000000 -70.739510
-4682.324899 -2896.000000 -70.926719
-4680.333680 -2896.000000 -71.113928
-4678.342461 -2896.000000 -71.301136
-4676.351242 -2896.000000 -71.488345
-4674.360023 -2896.000000 -71.675553
-4672.368804 -2896.000000 -71.862762
-4670.377585 -2896.000000 -72.049971
-4668.386366 -2896.000000 -72.237179
-4666.395147 -2896.000000 -72.424388
-4664.403928 -2896.000000 -72.611597
-4662.412709 -2896.000000 -72.798805
-4660.421490 -2896.000000 -72.986014
-4658.430271 -2896.000000 -73.173222
-4656.439052 -2896.000000 -73.360431
-4654.447833 -2896.000000 -73.547640
-4652.456614 -2896.000000 -73.734848
-4650.465395 -2896.000000 -73.922057
-4648.474176 -2896.000000 -74.109265
-4646.482957 -2896.000000 -74.296474
-4644.491738 -2896.000000 -74.483683
-4642.500519 -2896.000000 -74.670891
-4640.509301 -2896.000000 -74.858100
-4638.518082 -2896.000000 -75.045309
-4636.526863 -2896.000000 -75.232517
-4634.535644 -2896.000000 -75.419726
-4632.544425 -2896.000000 -75.606934
-4630.553206 -2896.000000 -75.794143
-4628.561987 -2896.000000 -75.981352
-4626.570768 -2896.000000 -76.168560
-4624.579549 -2896.000000 -76.355769
-4622.588330 -2896.000000 -76.542978
-4620.597111 -2896.000000 -76.730186
-4618.605892 -2896.000000 -76.917395
-4616.614673 -2896.000000 -77.104603
-4614.623454 -2896.000000 -77.291812
-4612.632235 -2896.000000 -77.479021
-4610.641016 -2896.000000 -77.666229
-4608.649797 -2896.000000 -77.853438
-4606.658578 -2896.000000 -78.040646
-4604.667359 -2896.000000 -78.227855
-4602.676140 -2896.000000 -78.415064
-4600.684921 -2896.000000 -78.602272
-4598.693702 -2896.000000 -78.789481
-4596.702483 -2896.000000 -78.976690
-4594.711265 -2896.000000 -79.163898
-4592.720046 -2896.000000 -79.351107
-4590.728827 -2896.000000 -79.538315
-4588.737608 -2896.000000 -79.725524
-4586.746389 -2896.000000 -79.912733
-4584.755170 -2896.000000 -80.099941
-4582.763951 -2896.000000 -80.287150
-4580.772732 -2896.000000 -80.474359
-4578.781513 -2896.000000 -80.661567
-4576.790294 -2896.000000 -80.848776
-4574.799075 -2896.000000 -81.035984
-4572.807856 -2896.000000 -81.223193
-4570.816637 -2896.000000 -81.410402
-4568.825418 -2896.000000 -81.597610
-4566.834199 -2896.000000 -81.784819
-4564.842980 -2896.000000 -81.972028
-4562.851761 -2896.000000 -82.159236
-4560.860542 -2896.000000 -82.346445
-4558.869323 -2896.000000 -82.533653
-4556.878104 -2896.000000 -82.720862
-4554.886885 -2896.000000 -82.908071
-4552.895666 -2896.000000 -83.095279
-4550.904447 -2896.000000 -83.282488
-4548.913229 -2896.000000 -83.469696
-4546.922010 -2896.000000 -83.656905
-4544.930791 -2896.000000 -83.844114
-4542.939572 -2896.000000 -84.031322
-4540.948353 -2896.000000 -84.218531
-4538.957134 -2896.000000 -84.405740
-4536.965915 -2896.000000 -84.592948
-4534.974696 -2896.000000 -84.780157
-4532.983477 -2896.000000 -84.967365
-4530.992258 -2896.000000 -85.154574
-4529.001039 -2896.000000 -85.341783
-4527.009820 -2896.000000 -85.528991
-4525.018601 -2896.000000 -85.716200
-4523.027382 -2896.000000 -85.903409
-4521.036163 -2896.000000 -86.090617
-4519.044944 -2896.000000 -86.277826
-4517.053725 -2896.000000 -86.465034
-4515.062506 -2896.000000 -86.652243
-4513.071287 -2896.000000 -86.839452
-4511.080068 -2896.000000 -87.026660
-4509.088849 -2896.000000 -87.213869
-4507.097630 -2896.000000 -87.401077
-4505.106411 -2896.000000 -87.588286
-4503.115193 -2896.000000 -87.775495
-4501.123974 -2896.000000 -87.962703
-4499.132755 -2896.000000 -88.149912
-4497.141536 -2896.000000 -88.337121
-4495.150317 -2896.000000 -88.524329
-4493.159098 -2896.000000 -88.711538
-4491.167879 -2896.000000 -88.898746
-4489.176660 -2896.000000 -89.085955
-4487.185441 -2896.000000 -89.273164
-4485.194222 -2896.000000 -89.460372
-4483.203003 -2896.000000 -89.647581
-4481.211784 -2896.000000 -89.834790
-4479.220565 -2896.000000 -90.021998
-4477.229346 -2896.000000 -90.209207
-4475.238127 -2896.000000 -90.396415
-4473.246908 -2896.000000 -90.583624
-4471.255689 -2896.000000 -90.770833
-4469.264470 -2896.000000 -90.958041
-4467.273251 -2896.000000 -91.145250
-4465.282032 -2896.000000 -91.332458
-4463.290813 -2896.000000 -91.519667
-4461.299594 -2896.000000 -91.706876
-4459.308375 -2896.000000 -91.894084
-4457.317157 -2896.000000 -92.081293
-4455.325938 -2896.000000 -92.268502
-4453.334719 -2896.000000 -92.455710
-4451.343500 -2896.000000 -92.642919
-4449.352281 -2896.000000 -92.830127
-4447.361062 -2896.000000 -93.017336
-4445.369843 -2896.000000 -93.204545
-4443.378624 -2896.000000 -93.391753
-4441.387405 -2896.000000 -93.578962
-4439.396186 -2896.000000 -93.766171
-4437.404967 -2896.000000 -93.953379
-4435.413748 -2896.000000 -94.140588
-4433.422529 -2896.000000 -94.327796
-4431.431310 -2896.000000 -94.515005
-4429.440091 -2896.000000 -94.702214
-4427.448872 -2896.000000 -94.889422
-4425.457653 -2896.000000 -95.076631
-4423.466434 -2896.000000 -95.263840
-4421.475215 -2896.000000 -95.451048
-4419.483996 -2896.000000 -95.638257
-4417.492777 -2896.000000 -95.825465
-4415.501558 -2896.000000 -96.012674
-4413.510339 -2896.000000 -96.199883
-4411.519121 -2896.000000 -96.387091
-4409.527902 -2896.000000 -96.574300
-4407.536683 -2896.000000 -96.761508
-4405.545464 -2896.000000 -96.948717
-4403.554245 -2896.000000 -97.135926
-4401.563026 -2896.000000 -97.323134
-4399.571807 -2896.000000 -97.510343
-4397.580588 -2896.000000 -97.697552
-4395.589369 -2896.000000 -97.884760
-4393.598150 -2896.000000 -98.071969
-4391.606931 -2896.000000 -98.259177
-4389.615712 -2896.000000 -98.446386
-4387.624493 -2896.000000 -98.633595
-4385.633274 -2896.000000 -98.820803
-4383.642055 -2896.000000 -99.008012
-4381.650836 -2896.000000 -99.195221
-4379.659617 -2896.000000 -99.382429
-4377.668398 -2896.000000 -99.569638
-4375.677179 -2896.000000 -99.756846
-4373.685960 -2896.000000 -99.944055
-4371.694741 -2896.000000 -100.131264
-4369.703522 -2896.000000 -100.318472
-4367.712303 -2896.000000 -100.505681
-4365.721085 -2896.000000 -100.692889
-4363.729866 -2896.000000 -100.880098
-4361.738647 -2896.000000 -101.067307
-4359.747428 -2896.000000 -101.254515
-4357.756209 -2896.000000 -101.441724
-4355.764990 -2896.000000 -101.628933
-4353.773771 -2896.000000 -101.816141
-4351.782552 -2896.000000 -102.003350
-4349.791333 -2896.000000 -102.190558
